ply
    format ascii 1.0
    element vertex 99870
    property float x
    property float y
    property float z
    property uchar red
    property uchar green
    property uchar blue
    end_header
-0.121094 -0.515625 0.048561 14 18 23
-0.117188 -0.515625 0.050562 14 18 23
-0.113281 -0.515625 0.052347 14 19 23
-0.109375 -0.515625 0.054118 14 18 23
-0.105469 -0.515625 0.055774 14 18 22
-0.101562 -0.515625 0.057409 13 18 22
-0.097656 -0.515625 0.058862 12 16 20
-0.093750 -0.515625 0.060015 12 16 20
-0.089844 -0.515625 0.061179 12 17 20
-0.085938 -0.515625 0.062368 12 17 20
-0.082031 -0.515625 0.063754 12 16 20
-0.078125 -0.515625 0.065774 12 16 19
-0.074219 -0.515625 0.066797 14 18 21
-0.070312 -0.515625 0.064228 14 17 21
-0.066406 -0.515625 0.059306 13 16 19
-0.062500 -0.515625 0.048793 16 19 21
-0.058594 -0.515625 0.033342 17 20 22
-0.054688 -0.515625 0.015757 20 21 24
-0.050781 -0.515625 0.002693 17 17 20
-0.042969 -0.515625 -0.002971 48 56 64
0.066406 -0.515625 0.016847 14 14 18
0.070312 -0.515625 0.021967 14 15 19
0.074219 -0.515625 0.026210 13 14 18
0.078125 -0.515625 0.029234 13 14 19
0.082031 -0.515625 0.032490 13 14 19
0.085938 -0.515625 0.035989 13 13 19
0.089844 -0.515625 0.038872 13 13 18
0.093750 -0.515625 0.041173 13 14 19
0.097656 -0.515625 0.042893 13 14 19
0.101562 -0.515625 0.044261 13 14 19
0.105469 -0.515625 0.045301 13 14 19
0.109375 -0.515625 0.046187 13 14 19
0.113281 -0.515625 0.047216 13 14 18
0.117188 -0.515625 0.048419 13 14 19
0.121094 -0.515625 0.049643 14 16 20
0.125000 -0.515625 0.050851 14 18 22
0.128906 -0.515625 0.051817 14 18 22
0.132812 -0.515625 0.052708 14 18 22
0.136719 -0.515625 0.053830 14 18 22
0.140625 -0.515625 0.055301 14 18 22
0.144531 -0.515625 0.056815 14 18 22
0.148438 -0.515625 0.058245 14 18 22
0.152344 -0.515625 0.059607 14 18 22
0.156250 -0.515625 0.060876 14 18 22
0.160156 -0.515625 0.062300 14 18 22
0.164062 -0.515625 0.064087 14 17 22
0.167969 -0.515625 0.066314 14 17 22
0.171875 -0.515625 0.068899 14 17 22
0.175781 -0.515625 0.071598 14 17 22
0.179688 -0.515625 0.073795 14 16 22
0.183594 -0.515625 0.075453 14 14 20
0.187500 -0.515625 0.077062 14 13 19
0.191406 -0.515625 0.079586 14 13 19
0.195312 -0.515625 0.083632 15 13 20
0.199219 -0.515625 0.087663 16 14 21
0.203125 -0.515625 0.091139 17 15 22
0.207031 -0.515625 0.090729 19 16 23
0.210938 -0.515625 0.079546 18 16 23
0.214844 -0.515625 0.053788 15 13 20
0.218750 -0.515625 0.034848 14 12 19
0.222656 -0.515625 0.028736 15 14 21
0.226562 -0.515625 0.024302 15 14 21
-0.214844 -0.519531 -0.012072 107 104 112
-0.210938 -0.519531 -0.006497 21 22 27
-0.207031 -0.519531 0.003600 16 18 20
-0.203125 -0.519531 0.010959 15 19 20
-0.199219 -0.519531 0.015642 17 21 22
-0.195312 -0.519531 0.018595 16 20 21
-0.191406 -0.519531 0.021365 15 20 22
-0.187500 -0.519531 0.023793 15 20 23
-0.183594 -0.519531 0.025856 15 19 23
-0.179688 -0.519531 0.027594 15 19 23
-0.175781 -0.519531 0.028869 15 19 23
-0.171875 -0.519531 0.029885 15 19 23
-0.167969 -0.519531 0.030499 15 19 23
-0.164062 -0.519531 0.030974 15 19 23
-0.160156 -0.519531 0.031500 15 19 23
-0.156250 -0.519531 0.032353 15 19 23
-0.152344 -0.519531 0.033305 15 19 23
-0.148438 -0.519531 0.034336 15 19 23
-0.144531 -0.519531 0.035611 15 19 23
-0.140625 -0.519531 0.037195 14 19 23
-0.136719 -0.519531 0.039152 14 19 23
-0.132812 -0.519531 0.041380 14 19 23
-0.128906 -0.519531 0.043837 14 18 23
-0.125000 -0.519531 0.046244 14 18 23
-0.121094 -0.519531 0.048478 14 18 22
-0.117188 -0.519531 0.050321 14 18 22
-0.113281 -0.519531 0.051988 14 18 23
-0.109375 -0.519531 0.053648 14 18 22
-0.105469 -0.519531 0.055234 14 18 22
-0.101562 -0.519531 0.056814 13 18 22
-0.097656 -0.519531 0.058267 13 17 21
-0.093750 -0.519531 0.059457 12 17 21
-0.089844 -0.519531 0.060630 13 17 21
-0.085938 -0.519531 0.062117 13 17 21
-0.082031 -0.519531 0.063936 13 17 20
-0.078125 -0.519531 0.066590 12 17 20
-0.074219 -0.519531 0.068183 15 19 23
-0.070312 -0.519531 0.064716 14 18 21
-0.066406 -0.519531 0.055518 12 15 17
-0.062500 -0.519531 0.035542 15 17 19
-0.058594 -0.519531 0.017481 16 18 19
-0.054688 -0.519531 0.006585 20 20 22
0.066406 -0.519531 0.015762 15 14 18
0.070312 -0.519531 0.021020 15 15 19
0.074219 -0.519531 0.025422 13 13 18
0.078125 -0.519531 0.028551 13 14 18
0.082031 -0.519531 0.031904 13 13 18
0.085938 -0.519531 0.035466 13 13 18
0.089844 -0.519531 0.038427 13 13 19
0.093750 -0.519531 0.040747 14 14 19
0.097656 -0.519531 0.042456 14 14 20
0.101562 -0.519531 0.043778 14 14 20
0.105469 -0.519531 0.044746 14 14 19
0.109375 -0.519531 0.045588 14 14 19
0.113281 -0.519531 0.046602 14 14 19
0.117188 -0.519531 0.047809 14 15 19
0.121094 -0.519531 0.049063 14 16 20
0.125000 -0.519531 0.050266 14 17 21
0.128906 -0.519531 0.051243 14 17 22
0.132812 -0.519531 0.052173 14 18 22
0.136719 -0.519531 0.053303 14 18 22
0.140625 -0.519531 0.054762 14 18 22
0.144531 -0.519531 0.056279 14 18 22
0.148438 -0.519531 0.057735 14 18 22
0.152344 -0.519531 0.059140 14 18 22
0.156250 -0.519531 0.060453 14 18 22
0.160156 -0.519531 0.061878 14 18 22
0.164062 -0.519531 0.063600 14 18 22
0.167969 -0.519531 0.065706 14 18 22
0.171875 -0.519531 0.068082 14 18 22
0.175781 -0.519531 0.070485 15 17 22
0.179688 -0.519531 0.072331 15 17 22
0.183594 -0.519531 0.073474 14 15 21
0.187500 -0.519531 0.074777 14 14 20
0.191406 -0.519531 0.077330 15 14 20
0.195312 -0.519531 0.082232 16 14 21
0.199219 -0.519531 0.087658 17 14 21
0.203125 -0.519531 0.092232 17 15 22
0.207031 -0.519531 0.091518 18 16 23
0.210938 -0.519531 0.076640 18 16 23
0.214844 -0.519531 0.042960 15 13 20
0.218750 -0.519531 0.028321 14 12 19
0.222656 -0.519531 0.022715 15 14 21
0.226562 -0.519531 0.019179 15 15 21
-0.218750 -0.523438 -0.012573 236 238 233
-0.214844 -0.523438 -0.013145 98 101 105
-0.210938 -0.523438 -0.006557 20 22 26
-0.207031 -0.523438 0.004685 15 17 19
-0.203125 -0.523438 0.012017 14 17 18
-0.199219 -0.523438 0.016436 16 20 20
-0.195312 -0.523438 0.019193 16 21 22
-0.191406 -0.523438 0.021825 16 20 23
-0.187500 -0.523438 0.024198 16 20 23
-0.183594 -0.523438 0.026230 15 20 23
-0.179688 -0.523438 0.027941 15 19 23
-0.175781 -0.523438 0.029264 15 19 23
-0.171875 -0.523438 0.030388 15 19 23
-0.167969 -0.523438 0.031138 15 19 23
-0.164062 -0.523438 0.031757 15 19 23
-0.160156 -0.523438 0.032419 15 19 23
-0.156250 -0.523438 0.033367 15 19 23
-0.152344 -0.523438 0.034352 15 19 23
-0.148438 -0.523438 0.035352 15 19 23
-0.144531 -0.523438 0.036545 15 19 23
-0.140625 -0.523438 0.038010 14 19 23
-0.136719 -0.523438 0.039817 14 19 23
-0.132812 -0.523438 0.041875 14 19 23
-0.128906 -0.523438 0.044139 14 18 23
-0.125000 -0.523438 0.046354 14 18 23
-0.121094 -0.523438 0.048414 14 18 22
-0.117188 -0.523438 0.050110 14 18 22
-0.113281 -0.523438 0.051674 14 18 23
-0.109375 -0.523438 0.053234 14 18 22
-0.105469 -0.523438 0.054753 14 18 22
-0.101562 -0.523438 0.056277 13 18 22
-0.097656 -0.523438 0.057733 13 17 21
-0.093750 -0.523438 0.058889 12 17 21
-0.089844 -0.523438 0.060124 13 17 21
-0.085938 -0.523438 0.061860 13 17 21
-0.082031 -0.523438 0.064098 13 17 21
-0.078125 -0.523438 0.067244 13 17 21
-0.074219 -0.523438 0.068852 15 19 23
-0.070312 -0.523438 0.064731 13 17 20
-0.066406 -0.523438 0.048459 11 14 16
-0.062500 -0.523438 0.021342 13 15 17
-0.058594 -0.523438 0.008744 13 15 16
-0.054688 -0.523438 -0.000142 19 19 19
0.066406 -0.523438 0.013797 14 13 17
0.070312 -0.523438 0.019723 16 16 20
0.074219 -0.523438 0.024496 15 15 19
0.078125 -0.523438 0.027828 15 16 20
0.082031 -0.523438 0.031337 15 15 20
0.085938 -0.523438 0.035005 14 14 19
0.089844 -0.523438 0.038051 13 13 19
0.093750 -0.523438 0.040383 14 14 19
0.097656 -0.523438 0.042062 14 14 19
0.101562 -0.523438 0.043346 14 15 20
0.105469 -0.523438 0.044265 14 15 20
0.109375 -0.523438 0.045074 14 15 19
0.113281 -0.523438 0.046059 14 14 19
0.117188 -0.523438 0.047233 14 15 19
0.121094 -0.523438 0.048481 13 15 20
0.125000 -0.523438 0.049666 13 16 20
0.128906 -0.523438 0.050668 12 16 20
0.132812 -0.523438 0.051677 12 16 20
0.136719 -0.523438 0.052851 12 16 20
0.140625 -0.523438 0.054312 12 16 20
0.144531 -0.523438 0.055811 12 16 20
0.148438 -0.523438 0.057258 13 16 20
0.152344 -0.523438 0.058666 13 17 21
0.156250 -0.523438 0.059994 14 18 22
0.160156 -0.523438 0.061396 14 18 22
0.164062 -0.523438 0.063037 14 18 22
0.167969 -0.523438 0.065017 14 18 22
0.171875 -0.523438 0.067218 14 18 22
0.175781 -0.523438 0.069399 15 17 22
0.179688 -0.523438 0.070935 15 17 22
0.183594 -0.523438 0.071725 15 15 21
0.187500 -0.523438 0.072830 15 14 20
0.191406 -0.523438 0.075506 16 14 21
0.195312 -0.523438 0.081139 16 14 21
0.199219 -0.523438 0.087627 17 15 21
0.203125 -0.523438 0.093067 18 15 22
0.207031 -0.523438 0.092360 19 16 23
0.210938 -0.523438 0.072150 18 16 23
0.214844 -0.523438 0.033939 15 14 20
0.218750 -0.523438 0.023946 14 12 19
0.222656 -0.523438 0.017718 15 14 21
0.226562 -0.523438 0.014943 15 15 21
-0.218750 -0.527344 -0.014089 238 240 235
-0.214844 -0.527344 -0.014874 97 99 105
-0.210938 -0.527344 -0.006892 18 20 25
-0.207031 -0.527344 0.005800 15 17 19
-0.203125 -0.527344 0.013160 14 17 19
-0.199219 -0.527344 0.017283 15 19 20
-0.195312 -0.527344 0.019810 15 20 21
-0.191406 -0.527344 0.022272 15 19 22
-0.187500 -0.527344 0.024572 15 19 22
-0.183594 -0.527344 0.026563 15 19 23
-0.179688 -0.527344 0.028255 15 19 23
-0.175781 -0.527344 0.029638 15 19 23
-0.171875 -0.527344 0.030906 15 19 23
-0.167969 -0.527344 0.031834 15 19 23
-0.164062 -0.527344 0.032648 15 19 23
-0.160156 -0.527344 0.033489 15 19 23
-0.156250 -0.527344 0.034536 14 19 23
-0.152344 -0.527344 0.035536 14 19 23
-0.148438 -0.527344 0.036457 14 19 23
-0.144531 -0.527344 0.037515 14 19 23
-0.140625 -0.527344 0.038823 14 19 23
-0.136719 -0.527344 0.040444 14 19 23
-0.132812 -0.527344 0.042326 14 19 23
-0.128906 -0.527344 0.044412 14 18 23
-0.125000 -0.527344 0.046461 14 18 23
-0.121094 -0.527344 0.048376 14 18 22
-0.117188 -0.527344 0.049959 14 18 22
-0.113281 -0.527344 0.051434 14 18 22
-0.109375 -0.527344 0.052902 14 18 22
-0.105469 -0.527344 0.054349 14 18 22
-0.101562 -0.527344 0.055808 13 18 22
-0.097656 -0.527344 0.057257 13 17 21
-0.093750 -0.527344 0.058320 12 17 20
-0.089844 -0.527344 0.059584 12 16 20
-0.085938 -0.527344 0.061443 12 16 20
-0.082031 -0.527344 0.064059 13 17 21
-0.078125 -0.527344 0.067532 13 17 21
-0.074219 -0.527344 0.068776 15 19 22
-0.070312 -0.527344 0.064127 14 17 20
-0.066406 -0.527344 0.038972 14 17 19
-0.062500 -0.527344 0.012079 15 17 19
-0.058594 -0.527344 0.002635 13 15 15
-0.054688 -0.527344 -0.006485 19 17 18
0.066406 -0.527344 0.010107 13 13 17
0.070312 -0.527344 0.017537 15 15 19
0.074219 -0.527344 0.023119 14 14 19
0.078125 -0.527344 0.027156 14 14 19
0.082031 -0.527344 0.030991 14 14 19
0.085938 -0.527344 0.034700 13 13 19
0.089844 -0.527344 0.037770 13 13 18
0.093750 -0.527344 0.040093 13 13 19
0.097656 -0.527344 0.041705 13 13 19
0.101562 -0.527344 0.042946 13 14 19
0.105469 -0.527344 0.043821 14 14 19
0.109375 -0.527344 0.044607 14 14 19
0.113281 -0.527344 0.045542 14 14 19
0.117188 -0.527344 0.046632 13 14 19
0.121094 -0.527344 0.047807 13 15 19
0.125000 -0.527344 0.048929 12 15 19
0.128906 -0.527344 0.049958 12 16 20
0.132812 -0.527344 0.051099 12 16 20
0.136719 -0.527344 0.052385 12 16 20
0.140625 -0.527344 0.053911 12 16 20
0.144531 -0.527344 0.055414 12 16 20
0.148438 -0.527344 0.056828 12 16 20
0.152344 -0.527344 0.058213 13 17 21
0.156250 -0.527344 0.059537 14 18 22
0.160156 -0.527344 0.060920 14 18 22
0.164062 -0.527344 0.062504 14 18 22
0.167969 -0.527344 0.064391 14 18 22
0.171875 -0.527344 0.066464 14 17 22
0.175781 -0.527344 0.068494 14 17 22
0.179688 -0.527344 0.069715 15 16 22
0.183594 -0.527344 0.070296 14 15 20
0.187500 -0.527344 0.071190 14 14 19
0.191406 -0.527344 0.073959 15 14 20
0.195312 -0.527344 0.080191 16 14 20
0.199219 -0.527344 0.087813 17 15 21
0.203125 -0.527344 0.093898 18 15 22
0.207031 -0.527344 0.092989 19 16 23
0.210938 -0.527344 0.066663 18 16 23
0.214844 -0.527344 0.029079 15 14 20
0.218750 -0.527344 0.019955 14 13 19
0.222656 -0.527344 0.012674 16 15 21
0.226562 -0.527344 0.010931 16 15 21
-0.218750 -0.531250 -0.015899 236 239 234
-0.214844 -0.531250 -0.016468 86 91 97
-0.210938 -0.531250 -0.006978 18 20 24
-0.207031 -0.531250 0.006938 16 19 20
-0.203125 -0.531250 0.014171 15 19 20
-0.199219 -0.531250 0.017969 15 20 20
-0.195312 -0.531250 0.020306 16 21 22
-0.191406 -0.531250 0.022640 15 20 22
-0.187500 -0.531250 0.024864 15 19 22
-0.183594 -0.531250 0.026788 15 19 23
-0.179688 -0.531250 0.028450 15 19 23
-0.175781 -0.531250 0.029885 15 19 23
-0.171875 -0.531250 0.031296 15 19 23
-0.167969 -0.531250 0.032414 15 19 23
-0.164062 -0.531250 0.033432 15 19 23
-0.160156 -0.531250 0.034449 14 19 23
-0.156250 -0.531250 0.035582 14 19 23
-0.152344 -0.531250 0.036581 14 19 23
-0.148438 -0.531250 0.037412 14 19 23
-0.144531 -0.531250 0.038333 14 19 23
-0.140625 -0.531250 0.039487 14 19 23
-0.136719 -0.531250 0.040940 14 19 23
-0.132812 -0.531250 0.042669 14 19 23
-0.128906 -0.531250 0.044610 14 19 23
-0.125000 -0.531250 0.046531 14 19 23
-0.121094 -0.531250 0.048332 14 18 23
-0.117188 -0.531250 0.049832 14 18 23
-0.113281 -0.531250 0.051222 14 19 23
-0.109375 -0.531250 0.052579 14 19 23
-0.105469 -0.531250 0.053919 14 19 23
-0.101562 -0.531250 0.055280 14 18 22
-0.097656 -0.531250 0.056672 13 17 21
-0.093750 -0.531250 0.057606 12 17 21
-0.089844 -0.531250 0.058858 12 16 20
-0.085938 -0.531250 0.060755 12 16 20
-0.082031 -0.531250 0.063536 12 17 20
-0.078125 -0.531250 0.066890 13 17 21
-0.074219 -0.531250 0.067266 14 18 22
-0.070312 -0.531250 0.061286 15 18 21
-0.066406 -0.531250 0.027536 17 19 22
-0.062500 -0.531250 0.008595 16 18 21
-0.058594 -0.531250 -0.002817 14 15 16
-0.054688 -0.531250 -0.011175 19 17 19
0.066406 -0.531250 0.004932 13 13 17
0.070312 -0.531250 0.015079 15 15 19
0.074219 -0.531250 0.021672 13 13 18
0.078125 -0.531250 0.026808 13 13 18
0.082031 -0.531250 0.030901 13 14 19
0.085938 -0.531250 0.034536 12 13 18
0.089844 -0.531250 0.037538 12 13 18
0.093750 -0.531250 0.039840 13 13 19
0.097656 -0.531250 0.041396 13 13 18
0.101562 -0.531250 0.042609 13 14 19
0.105469 -0.531250 0.043456 14 14 19
0.109375 -0.531250 0.044233 14 14 19
0.113281 -0.531250 0.045102 14 15 19
0.117188 -0.531250 0.046066 14 15 19
0.121094 -0.531250 0.047107 13 15 19
0.125000 -0.531250 0.048122 12 15 19
0.128906 -0.531250 0.049180 12 16 20
0.132812 -0.531250 0.050505 12 16 20
0.136719 -0.531250 0.051965 12 16 20
0.140625 -0.531250 0.053601 12 16 20
0.144531 -0.531250 0.055116 12 16 20
0.148438 -0.531250 0.056470 13 16 20
0.152344 -0.531250 0.057797 14 17 21
0.156250 -0.531250 0.059095 14 18 22
0.160156 -0.531250 0.060459 14 18 22
0.164062 -0.531250 0.061997 15 18 22
0.167969 -0.531250 0.063808 15 18 22
0.171875 -0.531250 0.065775 15 18 22
0.175781 -0.531250 0.067674 15 18 22
0.179688 -0.531250 0.068662 15 17 22
0.183594 -0.531250 0.069142 15 15 21
0.187500 -0.531250 0.069857 15 14 20
0.191406 -0.531250 0.072583 16 14 20
0.195312 -0.531250 0.079040 17 15 21
0.199219 -0.531250 0.087379 17 15 22
0.203125 -0.531250 0.093972 18 16 22
0.207031 -0.531250 0.093248 19 17 24
0.210938 -0.531250 0.061955 19 17 23
0.214844 -0.531250 0.025548 16 14 20
0.218750 -0.531250 0.016373 14 13 19
0.222656 -0.531250 0.008705 15 14 20
-0.218750 -0.535156 -0.018404 233 237 232
-0.214844 -0.535156 -0.017965 74 79 88
-0.210938 -0.535156 -0.006832 17 19 24
-0.207031 -0.535156 0.007983 16 18 20
-0.203125 -0.535156 0.014973 14 17 18
-0.199219 -0.535156 0.018466 15 19 20
-0.195312 -0.535156 0.020671 16 21 23
-0.191406 -0.535156 0.022913 16 21 23
-0.187500 -0.535156 0.025070 15 20 23
-0.183594 -0.535156 0.026937 15 19 23
-0.179688 -0.535156 0.028577 14 18 22
-0.175781 -0.535156 0.030059 14 18 21
-0.171875 -0.535156 0.031606 14 18 22
-0.167969 -0.535156 0.032912 14 18 22
-0.164062 -0.535156 0.034119 14 19 23
-0.160156 -0.535156 0.035299 14 19 23
-0.156250 -0.535156 0.036494 14 19 23
-0.152344 -0.535156 0.037474 14 19 23
-0.148438 -0.535156 0.038216 14 18 23
-0.144531 -0.535156 0.039006 14 18 23
-0.140625 -0.535156 0.040026 14 18 23
-0.136719 -0.535156 0.041324 14 18 23
-0.132812 -0.535156 0.042912 14 19 23
-0.128906 -0.535156 0.044731 15 20 24
-0.125000 -0.535156 0.046545 15 20 24
-0.121094 -0.535156 0.048253 14 19 23
-0.117188 -0.535156 0.049682 14 19 23
-0.113281 -0.535156 0.050976 14 18 22
-0.109375 -0.535156 0.052195 13 18 22
-0.105469 -0.535156 0.053405 13 17 21
-0.101562 -0.535156 0.054645 12 17 21
-0.097656 -0.535156 0.055925 12 16 19
-0.093750 -0.535156 0.056742 11 15 19
-0.089844 -0.535156 0.057918 11 15 19
-0.085938 -0.535156 0.059712 11 15 18
-0.082031 -0.535156 0.062508 11 16 19
-0.078125 -0.535156 0.065415 12 16 20
-0.074219 -0.535156 0.064320 13 17 21
-0.070312 -0.535156 0.054533 13 15 19
-0.066406 -0.535156 0.017634 12 14 18
-0.062500 -0.535156 0.005731 11 12 16
-0.058594 -0.535156 -0.006428 12 14 16
0.070312 -0.535156 0.010825 15 16 20
0.074219 -0.535156 0.020093 14 15 19
0.078125 -0.535156 0.026518 15 16 21
0.082031 -0.535156 0.030958 15 16 21
0.085938 -0.535156 0.034510 12 13 19
0.089844 -0.535156 0.037456 12 13 18
0.093750 -0.535156 0.039712 13 13 19
0.097656 -0.535156 0.041225 13 13 18
0.101562 -0.535156 0.042408 13 13 18
0.105469 -0.535156 0.043236 13 14 19
0.109375 -0.535156 0.043995 14 14 19
0.113281 -0.535156 0.044788 14 15 19
0.117188 -0.535156 0.045607 13 15 19
0.121094 -0.535156 0.046488 12 14 18
0.125000 -0.535156 0.047379 11 14 18
0.128906 -0.535156 0.048451 11 15 19
0.132812 -0.535156 0.049956 12 16 19
0.136719 -0.535156 0.051601 12 16 20
0.140625 -0.535156 0.053348 13 17 21
0.144531 -0.535156 0.054879 13 17 21
0.148438 -0.535156 0.056161 14 17 21
0.152344 -0.535156 0.057417 13 17 20
0.156250 -0.535156 0.058689 13 16 20
0.160156 -0.535156 0.060054 13 16 20
0.164062 -0.535156 0.061574 13 16 20
0.167969 -0.535156 0.063346 13 16 20
0.171875 -0.535156 0.065253 13 16 20
0.175781 -0.535156 0.067056 13 16 21
0.179688 -0.535156 0.067929 14 15 20
0.183594 -0.535156 0.068376 13 13 19
0.187500 -0.535156 0.068961 13 12 18
0.191406 -0.535156 0.071604 14 13 18
0.195312 -0.535156 0.077991 15 13 19
0.199219 -0.535156 0.086615 15 13 20
0.203125 -0.535156 0.093567 16 14 20
0.207031 -0.535156 0.093100 17 16 22
0.210938 -0.535156 0.059551 17 16 22
0.214844 -0.535156 0.022896 15 14 20
0.218750 -0.535156 0.013627 13 12 18
0.222656 -0.535156 0.005500 13 12 18
-0.218750 -0.539062 -0.020529 227 232 228
-0.214844 -0.539062 -0.019320 52 56 68
-0.210938 -0.539062 -0.006741 15 16 20
-0.207031 -0.539062 0.008818 16 18 19
-0.203125 -0.539062 0.015594 14 17 18
-0.199219 -0.539062 0.018849 16 20 21
-0.195312 -0.539062 0.020853 17 22 24
-0.191406 -0.539062 0.022957 16 22 25
-0.187500 -0.539062 0.025037 16 20 24
-0.183594 -0.539062 0.026848 15 19 23
-0.179688 -0.539062 0.028467 14 18 22
-0.175781 -0.539062 0.030004 13 17 21
-0.171875 -0.539062 0.031681 13 17 21
-0.167969 -0.539062 0.033151 14 18 22
-0.164062 -0.539062 0.034516 14 19 23
-0.160156 -0.539062 0.035825 14 19 23
-0.156250 -0.539062 0.037067 14 19 23
-0.152344 -0.539062 0.038048 14 19 23
-0.148438 -0.539062 0.038746 14 19 23
-0.144531 -0.539062 0.039467 14 18 23
-0.140625 -0.539062 0.040407 14 18 23
-0.136719 -0.539062 0.041595 14 19 23
-0.132812 -0.539062 0.043057 15 19 23
-0.128906 -0.539062 0.044744 15 20 24
-0.125000 -0.539062 0.046460 16 20 25
-0.121094 -0.539062 0.048100 15 20 24
-0.117188 -0.539062 0.049468 15 19 23
-0.113281 -0.539062 0.050661 14 19 23
-0.109375 -0.539062 0.051733 13 18 22
-0.105469 -0.539062 0.052807 13 18 21
-0.101562 -0.539062 0.053945 12 17 21
-0.097656 -0.539062 0.055137 11 16 20
-0.093750 -0.539062 0.055911 11 15 19
-0.089844 -0.539062 0.057006 11 15 19
-0.085938 -0.539062 0.058564 10 15 18
-0.082031 -0.539062 0.061026 11 16 19
-0.078125 -0.539062 0.063220 12 17 20
-0.074219 -0.539062 0.060991 13 17 21
-0.070312 -0.539062 0.047553 13 16 20
-0.066406 -0.539062 0.014438 11 13 17
-0.062500 -0.539062 0.002864 9 11 15
-0.058594 -0.539062 -0.009436 12 14 17
0.070312 -0.539062 0.004500 14 15 19
0.074219 -0.539062 0.018010 11 12 16
0.078125 -0.539062 0.026118 12 13 18
0.082031 -0.539062 0.031001 13 15 20
0.085938 -0.539062 0.034423 12 13 18
0.089844 -0.539062 0.037381 12 13 18
0.093750 -0.539062 0.039633 14 14 19
0.097656 -0.539062 0.041127 13 14 19
0.101562 -0.539062 0.042338 13 14 19
0.105469 -0.539062 0.043176 14 14 19
0.109375 -0.539062 0.043927 14 14 19
0.113281 -0.539062 0.044648 14 15 19
0.117188 -0.539062 0.045327 13 15 19
0.121094 -0.539062 0.046059 12 14 18
0.125000 -0.539062 0.046825 11 14 17
0.128906 -0.539062 0.047886 11 15 18
0.132812 -0.539062 0.049516 12 16 19
0.136719 -0.539062 0.051293 12 17 20
0.140625 -0.539062 0.053119 13 18 21
0.144531 -0.539062 0.054655 14 19 22
0.148438 -0.539062 0.055879 14 19 22
0.152344 -0.539062 0.057100 13 17 20
0.156250 -0.539062 0.058382 12 16 19
0.160156 -0.539062 0.059785 12 16 19
0.164062 -0.539062 0.061341 12 15 19
0.167969 -0.539062 0.063136 12 15 19
0.171875 -0.539062 0.065041 12 15 19
0.175781 -0.539062 0.066816 13 15 20
0.179688 -0.539062 0.067678 13 15 20
0.183594 -0.539062 0.068131 12 13 18
0.187500 -0.539062 0.068659 12 12 17
0.191406 -0.539062 0.071141 13 12 18
0.195312 -0.539062 0.077211 14 13 18
0.199219 -0.539062 0.085768 15 13 19
0.203125 -0.539062 0.093025 16 14 20
0.207031 -0.539062 0.092703 17 16 22
0.210938 -0.539062 0.059351 18 17 22
0.214844 -0.539062 0.021212 16 15 21
0.218750 -0.539062 0.011865 14 13 19
0.222656 -0.539062 0.003315 13 12 18
-0.218750 -0.542969 -0.022528 223 230 225
-0.214844 -0.542969 -0.020324 37 40 51
-0.210938 -0.542969 -0.006574 12 13 17
-0.207031 -0.542969 0.009378 14 16 17
-0.203125 -0.542969 0.015736 13 16 17
-0.199219 -0.542969 0.018766 16 21 22
-0.195312 -0.542969 0.020630 17 22 24
-0.191406 -0.542969 0.022640 16 22 25
-0.187500 -0.542969 0.024691 16 20 24
-0.183594 -0.542969 0.026472 15 19 23
-0.179688 -0.542969 0.028106 14 18 22
-0.175781 -0.542969 0.029733 13 17 21
-0.171875 -0.542969 0.031553 13 17 21
-0.167969 -0.542969 0.033191 14 18 22
-0.164062 -0.542969 0.034694 14 19 23
-0.160156 -0.542969 0.036109 14 19 23
-0.156250 -0.542969 0.037397 14 19 23
-0.152344 -0.542969 0.038403 14 19 23
-0.148438 -0.542969 0.039118 14 19 23
-0.144531 -0.542969 0.039834 14 19 23
-0.140625 -0.542969 0.040756 14 19 23
-0.136719 -0.542969 0.041879 14 19 23
-0.132812 -0.542969 0.043222 14 19 23
-0.128906 -0.542969 0.044764 15 20 24
-0.125000 -0.542969 0.046371 15 20 24
-0.121094 -0.542969 0.047930 14 19 23
-0.117188 -0.542969 0.049223 14 19 23
-0.113281 -0.542969 0.050306 13 18 22
-0.109375 -0.542969 0.051206 13 18 22
-0.105469 -0.542969 0.052148 13 17 21
-0.101562 -0.542969 0.053233 12 17 21
-0.097656 -0.542969 0.054388 11 16 20
-0.093750 -0.542969 0.055221 11 16 19
-0.089844 -0.542969 0.056229 11 15 19
-0.085938 -0.542969 0.057432 10 14 18
-0.082031 -0.542969 0.059240 11 15 18
-0.078125 -0.542969 0.060471 12 16 19
-0.074219 -0.542969 0.057129 13 17 21
-0.070312 -0.542969 0.041720 13 17 21
-0.066406 -0.542969 0.014043 11 14 19
-0.062500 -0.542969 0.001083 9 12 17
0.070312 -0.542969 -0.002021 14 15 20
0.074219 -0.542969 0.016402 10 11 15
0.078125 -0.542969 0.025339 11 12 16
0.082031 -0.542969 0.030679 13 15 19
0.085938 -0.542969 0.034226 14 15 20
0.089844 -0.542969 0.037219 14 14 19
0.093750 -0.542969 0.039507 14 14 19
0.097656 -0.542969 0.041057 13 14 19
0.101562 -0.542969 0.042375 14 14 19
0.105469 -0.542969 0.043248 14 14 19
0.109375 -0.542969 0.044019 14 14 19
0.113281 -0.542969 0.044704 14 15 19
0.117188 -0.542969 0.045278 13 15 19
0.121094 -0.542969 0.045896 12 14 18
0.125000 -0.542969 0.046579 11 14 18
0.128906 -0.542969 0.047642 11 15 18
0.132812 -0.542969 0.049356 12 16 19
0.136719 -0.542969 0.051227 12 16 20
0.140625 -0.542969 0.053114 13 17 21
0.144531 -0.542969 0.054658 14 18 22
0.148438 -0.542969 0.055849 14 18 22
0.152344 -0.542969 0.057061 13 17 21
0.156250 -0.542969 0.058363 13 16 20
0.160156 -0.542969 0.059795 13 16 20
0.164062 -0.542969 0.061396 13 16 20
0.167969 -0.542969 0.063223 13 16 20
0.171875 -0.542969 0.065137 13 16 20
0.175781 -0.542969 0.066909 13 16 20
0.179688 -0.542969 0.067814 13 15 20
0.183594 -0.542969 0.068307 13 14 19
0.187500 -0.542969 0.068820 13 13 18
0.191406 -0.542969 0.071051 14 13 18
0.195312 -0.542969 0.076578 14 13 19
0.199219 -0.542969 0.084515 15 13 19
0.203125 -0.542969 0.091794 16 14 20
0.207031 -0.542969 0.091906 17 16 22
0.210938 -0.542969 0.061598 17 16 22
0.214844 -0.542969 0.020510 16 16 22
0.218750 -0.542969 0.010999 15 14 20
0.222656 -0.542969 0.002150 14 13 19
0.226562 -0.542969 0.000530 15 14 19
-0.214844 -0.546875 -0.020825 28 28 38
-0.210938 -0.546875 -0.005847 13 13 17
-0.207031 -0.546875 0.009739 15 17 17
-0.203125 -0.546875 0.015532 13 16 17
-0.199219 -0.546875 0.018330 16 21 22
-0.195312 -0.546875 0.020097 16 22 23
-0.191406 -0.546875 0.022050 17 23 26
-0.187500 -0.546875 0.024119 16 21 25
-0.183594 -0.546875 0.025889 14 19 23
-0.179688 -0.546875 0.027556 13 18 22
-0.175781 -0.546875 0.029308 12 17 21
-0.171875 -0.546875 0.031285 13 17 21
-0.167969 -0.546875 0.033074 14 18 22
-0.164062 -0.546875 0.034684 14 19 23
-0.160156 -0.546875 0.036184 14 19 23
-0.156250 -0.546875 0.037516 14 19 23
-0.152344 -0.546875 0.038582 14 19 23
-0.148438 -0.546875 0.039376 14 18 23
-0.144531 -0.546875 0.040157 14 18 22
-0.140625 -0.546875 0.041115 14 18 22
-0.136719 -0.546875 0.042192 14 18 22
-0.132812 -0.546875 0.043434 14 18 23
-0.128906 -0.546875 0.044852 14 19 23
-0.125000 -0.546875 0.046360 14 18 22
-0.121094 -0.546875 0.047833 13 18 22
-0.117188 -0.546875 0.049031 13 17 21
-0.113281 -0.546875 0.049967 12 17 21
-0.109375 -0.546875 0.050671 12 16 20
-0.105469 -0.546875 0.051477 11 16 20
-0.101562 -0.546875 0.052569 11 15 19
-0.097656 -0.546875 0.053810 11 15 19
-0.093750 -0.546875 0.054826 10 15 18
-0.089844 -0.546875 0.055755 10 14 18
-0.085938 -0.546875 0.056587 10 14 17
-0.082031 -0.546875 0.057703 11 15 18
-0.078125 -0.546875 0.057985 12 16 19
-0.074219 -0.546875 0.053759 12 17 20
-0.070312 -0.546875 0.038073 14 18 22
-0.066406 -0.546875 0.014222 13 17 21
-0.062500 -0.546875 0.000914 11 14 19
0.074219 -0.546875 0.015035 10 11 15
0.078125 -0.546875 0.024621 9 10 13
0.082031 -0.546875 0.030126 12 13 17
0.085938 -0.546875 0.033779 15 15 20
0.089844 -0.546875 0.036944 14 15 19
0.093750 -0.546875 0.039353 14 14 19
0.097656 -0.546875 0.041005 13 14 19
0.101562 -0.546875 0.042463 14 14 19
0.105469 -0.546875 0.043406 14 14 19
0.109375 -0.546875 0.044214 14 14 19
0.113281 -0.546875 0.044878 14 15 19
0.117188 -0.546875 0.045350 13 15 19
0.121094 -0.546875 0.045858 11 14 18
0.125000 -0.546875 0.046476 11 13 17
0.128906 -0.546875 0.047532 11 14 18
0.132812 -0.546875 0.049292 11 15 18
0.136719 -0.546875 0.051213 12 16 19
0.140625 -0.546875 0.053132 13 17 20
0.144531 -0.546875 0.054693 14 18 21
0.148438 -0.546875 0.055879 14 18 21
0.152344 -0.546875 0.057114 13 17 20
0.156250 -0.546875 0.058465 12 16 19
0.160156 -0.546875 0.059957 12 16 19
0.164062 -0.546875 0.061625 12 16 19
0.167969 -0.546875 0.063493 12 16 19
0.171875 -0.546875 0.065432 12 16 20
0.175781 -0.546875 0.067215 13 15 20
0.179688 -0.546875 0.068199 13 15 20
0.183594 -0.546875 0.068742 13 13 18
0.187500 -0.546875 0.069243 12 12 17
0.191406 -0.546875 0.071228 13 12 18
0.195312 -0.546875 0.076175 14 13 18
0.199219 -0.546875 0.083446 14 13 18
0.203125 -0.546875 0.090615 15 14 19
0.207031 -0.546875 0.090659 16 15 21
0.210938 -0.546875 0.063504 16 16 21
0.214844 -0.546875 0.020380 16 16 22
0.218750 -0.546875 0.010650 15 15 20
0.222656 -0.546875 0.001418 15 14 19
0.226562 -0.546875 -0.000686 17 15 21
-0.214844 -0.550781 -0.020334 20 18 25
-0.210938 -0.550781 -0.004925 16 16 18
-0.207031 -0.550781 0.009735 19 20 19
-0.203125 -0.550781 0.015015 15 18 18
-0.199219 -0.550781 0.017586 16 20 21
-0.195312 -0.550781 0.019296 14 19 21
-0.191406 -0.550781 0.021212 17 22 26
-0.187500 -0.550781 0.023329 16 21 25
-0.183594 -0.550781 0.025131 14 19 23
-0.179688 -0.550781 0.026865 14 18 23
-0.175781 -0.550781 0.028763 13 17 21
-0.171875 -0.550781 0.030901 13 17 22
-0.167969 -0.550781 0.032828 14 18 22
-0.164062 -0.550781 0.034532 14 19 23
-0.160156 -0.550781 0.036106 14 19 23
-0.156250 -0.550781 0.037511 14 19 23
-0.152344 -0.550781 0.038682 14 18 23
-0.148438 -0.550781 0.039612 14 18 23
-0.144531 -0.550781 0.040529 14 19 23
-0.140625 -0.550781 0.041570 14 19 23
-0.136719 -0.550781 0.042664 14 19 23
-0.132812 -0.550781 0.043869 14 19 23
-0.128906 -0.550781 0.045183 14 18 22
-0.125000 -0.550781 0.046621 13 18 22
-0.121094 -0.550781 0.048033 13 17 22
-0.117188 -0.550781 0.049094 13 17 21
-0.113281 -0.550781 0.049808 12 17 21
-0.109375 -0.550781 0.050246 12 17 21
-0.105469 -0.550781 0.050869 12 17 21
-0.101562 -0.550781 0.052015 12 16 20
-0.097656 -0.550781 0.053505 12 17 20
-0.093750 -0.550781 0.054846 12 16 20
-0.089844 -0.550781 0.055824 11 16 19
-0.085938 -0.550781 0.056311 11 15 18
-0.082031 -0.550781 0.056662 11 16 19
-0.078125 -0.550781 0.055882 12 16 19
-0.074219 -0.550781 0.050968 12 16 20
-0.070312 -0.550781 0.036501 14 18 21
-0.066406 -0.550781 0.015208 14 18 22
-0.062500 -0.550781 0.001958 13 16 21
0.074219 -0.550781 0.013562 10 11 15
0.078125 -0.550781 0.023641 9 10 13
0.082031 -0.550781 0.029500 10 11 15
0.085938 -0.550781 0.033278 14 14 18
0.089844 -0.550781 0.036597 14 14 19
0.093750 -0.550781 0.039175 14 14 19
0.097656 -0.550781 0.040975 14 15 19
0.101562 -0.550781 0.042585 14 15 19
0.105469 -0.550781 0.043627 14 15 19
0.109375 -0.550781 0.044483 14 15 19
0.113281 -0.550781 0.045121 14 15 19
0.117188 -0.550781 0.045489 13 15 19
0.121094 -0.550781 0.045897 12 14 18
0.125000 -0.550781 0.046478 11 14 18
0.128906 -0.550781 0.047541 11 15 18
0.132812 -0.550781 0.049338 11 15 19
0.136719 -0.550781 0.051303 12 16 19
0.140625 -0.550781 0.053252 13 17 20
0.144531 -0.550781 0.054862 14 18 21
0.148438 -0.550781 0.056105 14 18 22
0.152344 -0.550781 0.057402 13 17 21
0.156250 -0.550781 0.058832 13 17 20
0.160156 -0.550781 0.060378 13 17 20
0.164062 -0.550781 0.062079 13 16 20
0.167969 -0.550781 0.063961 13 16 20
0.171875 -0.550781 0.065899 13 16 20
0.175781 -0.550781 0.067682 13 16 21
0.179688 -0.550781 0.068766 14 16 20
0.183594 -0.550781 0.069380 13 14 19
0.187500 -0.550781 0.069881 13 13 18
0.191406 -0.550781 0.071587 14 13 18
0.195312 -0.550781 0.075854 14 14 19
0.199219 -0.550781 0.082181 15 14 19
0.203125 -0.550781 0.088818 16 15 21
0.207031 -0.550781 0.088843 17 17 22
0.210938 -0.550781 0.064970 18 18 23
0.214844 -0.550781 0.020516 19 18 23
0.218750 -0.550781 0.010418 17 16 21
0.222656 -0.550781 0.001144 16 16 20
0.226562 -0.550781 -0.001444 19 18 23
-0.214844 -0.554688 -0.019214 17 17 20
-0.210938 -0.554688 -0.003891 17 17 18
-0.207031 -0.554688 0.009375 18 19 18
-0.203125 -0.554688 0.014183 15 18 18
-0.199219 -0.554688 0.016604 14 18 19
-0.195312 -0.554688 0.018308 12 17 19
-0.191406 -0.554688 0.020211 16 22 25
-0.187500 -0.554688 0.022363 16 21 25
-0.183594 -0.554688 0.024228 14 19 23
-0.179688 -0.554688 0.026046 14 18 23
-0.175781 -0.554688 0.028060 13 18 22
-0.171875 -0.554688 0.030332 13 18 22
-0.167969 -0.554688 0.032384 14 19 23
-0.164062 -0.554688 0.034173 15 19 23
-0.160156 -0.554688 0.035837 14 19 23
-0.156250 -0.554688 0.037338 14 19 23
-0.152344 -0.554688 0.038631 14 19 23
-0.148438 -0.554688 0.039709 14 19 23
-0.144531 -0.554688 0.040775 14 19 23
-0.140625 -0.554688 0.041926 14 19 23
-0.136719 -0.554688 0.043087 14 19 23
-0.132812 -0.554688 0.044331 14 18 22
-0.128906 -0.554688 0.045652 13 18 22
-0.125000 -0.554688 0.047092 12 17 21
-0.121094 -0.554688 0.048482 12 17 21
-0.117188 -0.554688 0.049392 12 16 20
-0.113281 -0.554688 0.049851 11 16 20
-0.109375 -0.554688 0.049981 11 16 20
-0.105469 -0.554688 0.050368 11 16 20
-0.101562 -0.554688 0.051497 11 16 20
-0.097656 -0.554688 0.053194 12 17 20
-0.093750 -0.554688 0.054854 12 17 20
-0.089844 -0.554688 0.055870 12 16 20
-0.085938 -0.554688 0.055933 11 15 18
-0.082031 -0.554688 0.055482 11 15 18
-0.078125 -0.554688 0.053663 10 14 17
-0.074219 -0.554688 0.048153 10 14 18
-0.070312 -0.554688 0.034885 11 14 18
-0.066406 -0.554688 0.016163 11 15 18
-0.062500 -0.554688 0.003453 13 16 20
0.074219 -0.554688 0.011358 13 13 17
0.078125 -0.554688 0.022312 13 13 16
0.082031 -0.554688 0.028916 11 12 16
0.085938 -0.554688 0.032889 14 15 18
0.089844 -0.554688 0.036295 14 15 19
0.093750 -0.554688 0.039033 14 14 19
0.097656 -0.554688 0.040967 14 14 19
0.101562 -0.554688 0.042713 14 14 19
0.105469 -0.554688 0.043851 14 14 19
0.109375 -0.554688 0.044775 14 15 19
0.113281 -0.554688 0.045403 14 15 19
0.117188 -0.554688 0.045679 13 15 19
0.121094 -0.554688 0.045996 12 15 18
0.125000 -0.554688 0.046543 11 14 18
0.128906 -0.554688 0.047602 11 15 18
0.132812 -0.554688 0.049394 12 16 19
0.136719 -0.554688 0.051370 12 16 19
0.140625 -0.554688 0.053342 13 17 20
0.144531 -0.554688 0.055029 14 18 21
0.148438 -0.554688 0.056425 14 18 21
0.152344 -0.554688 0.057883 13 17 21
0.156250 -0.554688 0.059452 13 17 20
0.160156 -0.554688 0.061070 13 17 20
0.164062 -0.554688 0.062770 13 17 20
0.167969 -0.554688 0.064627 13 17 20
0.171875 -0.554688 0.066534 13 17 21
0.175781 -0.554688 0.068289 14 17 21
0.179688 -0.554688 0.069459 14 16 21
0.183594 -0.554688 0.070177 13 15 19
0.187500 -0.554688 0.070733 13 14 18
0.191406 -0.554688 0.072204 14 14 19
0.195312 -0.554688 0.075750 15 14 19
0.199219 -0.554688 0.081045 15 15 20
0.203125 -0.554688 0.086823 17 16 21
0.207031 -0.554688 0.086431 18 18 22
0.210938 -0.554688 0.064382 19 19 23
0.214844 -0.554688 0.020687 19 19 23
0.218750 -0.554688 0.010460 17 16 21
0.222656 -0.554688 0.001266 17 16 20
0.226562 -0.554688 -0.001732 21 19 24
-0.214844 -0.558594 -0.017451 13 14 14
-0.210938 -0.558594 -0.002787 17 19 18
-0.207031 -0.558594 0.008921 18 20 18
-0.203125 -0.558594 0.013319 16 19 19
-0.199219 -0.558594 0.015623 15 19 20
-0.195312 -0.558594 0.017248 13 17 20
-0.191406 -0.558594 0.019095 17 23 26
-0.187500 -0.558594 0.021206 16 22 26
-0.183594 -0.558594 0.023055 13 18 23
-0.179688 -0.558594 0.024892 13 18 22
-0.175781 -0.558594 0.026967 13 17 21
-0.171875 -0.558594 0.029305 13 17 21
-0.167969 -0.558594 0.031451 14 18 22
-0.164062 -0.558594 0.033352 14 19 23
-0.160156 -0.558594 0.035152 14 19 23
-0.156250 -0.558594 0.036802 14 19 23
-0.152344 -0.558594 0.038239 14 19 23
-0.148438 -0.558594 0.039457 14 19 22
-0.144531 -0.558594 0.040660 14 19 22
-0.140625 -0.558594 0.041905 14 19 22
-0.136719 -0.558594 0.043107 14 19 23
-0.132812 -0.558594 0.044445 14 18 22
-0.128906 -0.558594 0.045930 13 17 21
-0.125000 -0.558594 0.047532 12 17 21
-0.121094 -0.558594 0.048975 12 17 21
-0.117188 -0.558594 0.049724 12 16 20
-0.113281 -0.558594 0.049929 11 15 19
-0.109375 -0.558594 0.049818 11 15 19
-0.105469 -0.558594 0.049957 10 15 18
-0.101562 -0.558594 0.050977 11 15 18
-0.097656 -0.558594 0.052768 11 16 19
-0.093750 -0.558594 0.054602 12 16 19
-0.089844 -0.558594 0.055611 11 16 19
-0.085938 -0.558594 0.055227 11 15 19
-0.082031 -0.558594 0.053925 11 16 19
-0.078125 -0.558594 0.051124 11 15 19
-0.074219 -0.558594 0.045190 13 18 21
-0.070312 -0.558594 0.033198 13 18 21
-0.066406 -0.558594 0.017672 12 16 19
-0.062500 -0.558594 0.005331 15 17 21
-0.058594 -0.558594 -0.005592 12 11 14
0.074219 -0.558594 0.010174 14 13 17
0.078125 -0.558594 0.021564 15 15 18
0.082031 -0.558594 0.028271 12 13 17
0.085938 -0.558594 0.032337 14 15 19
0.089844 -0.558594 0.035978 14 15 19
0.093750 -0.558594 0.038845 13 14 19
0.097656 -0.558594 0.040846 13 14 19
0.101562 -0.558594 0.042721 13 14 19
0.105469 -0.558594 0.043955 13 15 19
0.109375 -0.558594 0.044945 14 15 19
0.113281 -0.558594 0.045559 13 15 19
0.117188 -0.558594 0.045740 13 15 19
0.121094 -0.558594 0.045952 12 15 18
0.125000 -0.558594 0.046434 11 14 18
0.128906 -0.558594 0.047420 11 15 18
0.132812 -0.558594 0.049111 12 16 19
0.136719 -0.558594 0.051002 12 16 19
0.140625 -0.558594 0.052937 13 17 20
0.144531 -0.558594 0.054719 14 18 21
0.148438 -0.558594 0.056385 14 18 21
0.152344 -0.558594 0.058159 13 17 20
0.156250 -0.558594 0.060004 12 16 20
0.160156 -0.558594 0.061779 13 16 20
0.164062 -0.558594 0.063489 13 16 20
0.167969 -0.558594 0.065310 13 16 20
0.171875 -0.558594 0.067182 13 16 20
0.175781 -0.558594 0.068938 13 16 20
0.179688 -0.558594 0.070253 13 16 20
0.183594 -0.558594 0.071206 13 14 18
0.187500 -0.558594 0.071979 13 13 18
0.191406 -0.558594 0.073361 14 14 18
0.195312 -0.558594 0.076260 14 14 19
0.199219 -0.558594 0.080440 15 15 19
0.203125 -0.558594 0.084885 16 16 20
0.207031 -0.558594 0.083652 17 17 21
0.210938 -0.558594 0.061881 18 18 22
0.214844 -0.558594 0.020520 18 17 21
0.218750 -0.558594 0.010423 16 15 19
0.222656 -0.558594 0.001534 17 16 20
0.226562 -0.558594 -0.001607 22 19 25
-0.214844 -0.562500 -0.014982 12 13 13
-0.210938 -0.562500 -0.001673 16 18 17
-0.207031 -0.562500 0.008528 16 18 17
-0.203125 -0.562500 0.012347 16 19 19
-0.199219 -0.562500 0.014576 14 18 20
-0.195312 -0.562500 0.016225 13 18 20
-0.191406 -0.562500 0.017987 17 23 26
-0.187500 -0.562500 0.019992 16 22 26
-0.183594 -0.562500 0.021781 14 19 23
-0.179688 -0.562500 0.023577 14 19 23
-0.175781 -0.562500 0.025632 13 18 22
-0.171875 -0.562500 0.027973 14 18 22
-0.167969 -0.562500 0.030189 14 19 23
-0.164062 -0.562500 0.032226 14 19 23
-0.160156 -0.562500 0.034215 15 19 23
-0.156250 -0.562500 0.036064 15 20 23
-0.152344 -0.562500 0.037659 15 19 23
-0.148438 -0.562500 0.038992 15 19 23
-0.144531 -0.562500 0.040267 15 19 23
-0.140625 -0.562500 0.041509 15 19 23
-0.136719 -0.562500 0.042647 14 19 23
-0.132812 -0.562500 0.044077 14 19 23
-0.128906 -0.562500 0.045820 13 18 22
-0.125000 -0.562500 0.047686 13 18 22
-0.121094 -0.562500 0.049192 12 17 21
-0.117188 -0.562500 0.049791 12 17 20
-0.113281 -0.562500 0.049841 11 16 20
-0.109375 -0.562500 0.049651 11 15 19
-0.105469 -0.562500 0.049682 11 15 18
-0.101562 -0.562500 0.050500 11 15 19
-0.097656 -0.562500 0.052064 12 16 19
-0.093750 -0.562500 0.053730 12 17 20
-0.089844 -0.562500 0.054468 12 17 20
-0.085938 -0.562500 0.053462 12 16 20
-0.082031 -0.562500 0.051192 12 16 19
-0.078125 -0.562500 0.047437 11 15 18
-0.074219 -0.562500 0.041210 13 17 21
-0.070312 -0.562500 0.030640 12 16 20
-0.066406 -0.562500 0.018249 11 14 17
-0.062500 -0.562500 0.007152 17 19 21
-0.058594 -0.562500 -0.003112 10 10 12
0.078125 -0.562500 0.020286 16 16 20
0.082031 -0.562500 0.027474 13 14 18
0.085938 -0.562500 0.031856 15 17 20
0.089844 -0.562500 0.035611 15 17 21
0.093750 -0.562500 0.038550 13 15 19
0.097656 -0.562500 0.040638 14 15 20
0.101562 -0.562500 0.042658 13 15 19
0.105469 -0.562500 0.044003 13 15 19
0.109375 -0.562500 0.045067 13 15 19
0.113281 -0.562500 0.045664 13 16 19
0.117188 -0.562500 0.045754 13 16 19
0.121094 -0.562500 0.045872 12 15 18
0.125000 -0.562500 0.046287 11 15 18
0.128906 -0.562500 0.047159 11 15 18
0.132812 -0.562500 0.048675 12 16 19
0.136719 -0.562500 0.050414 12 16 19
0.140625 -0.562500 0.052260 13 17 20
0.144531 -0.562500 0.054143 14 18 21
0.148438 -0.562500 0.056168 14 18 21
0.152344 -0.562500 0.058392 13 17 20
0.156250 -0.562500 0.060629 13 17 20
0.160156 -0.562500 0.062609 13 17 20
0.164062 -0.562500 0.064328 13 16 20
0.167969 -0.562500 0.066110 13 16 20
0.171875 -0.562500 0.067931 13 16 20
0.175781 -0.562500 0.069702 13 17 20
0.179688 -0.562500 0.071216 13 16 20
0.183594 -0.562500 0.072502 13 15 19
0.187500 -0.562500 0.073619 13 15 18
0.191406 -0.562500 0.074968 14 15 19
0.195312 -0.562500 0.077216 15 16 19
0.199219 -0.562500 0.080138 16 16 20
0.203125 -0.562500 0.082874 17 17 20
0.207031 -0.562500 0.080463 18 18 21
0.210938 -0.562500 0.058036 18 18 21
0.214844 -0.562500 0.020010 17 17 20
0.218750 -0.562500 0.010349 16 16 19
0.222656 -0.562500 0.001906 16 15 18
0.226562 -0.562500 -0.001384 21 18 23
-0.214844 -0.566406 -0.011926 15 17 17
-0.210938 -0.566406 -0.000255 14 17 17
-0.207031 -0.566406 0.008323 12 15 15
-0.203125 -0.566406 0.011425 13 16 17
-0.199219 -0.566406 0.013551 13 17 19
-0.195312 -0.566406 0.015234 13 18 21
-0.191406 -0.566406 0.016921 16 21 25
-0.187500 -0.566406 0.018830 15 20 24
-0.183594 -0.566406 0.020565 13 18 22
-0.179688 -0.566406 0.022282 13 17 22
-0.175781 -0.566406 0.024240 13 17 21
-0.171875 -0.566406 0.026505 12 17 21
-0.167969 -0.566406 0.028739 12 16 21
-0.164062 -0.566406 0.030908 13 17 21
-0.160156 -0.566406 0.033099 14 19 23
-0.156250 -0.566406 0.035129 15 19 23
-0.152344 -0.566406 0.036863 15 19 23
-0.148438 -0.566406 0.038242 14 19 23
-0.144531 -0.566406 0.039513 13 18 21
-0.140625 -0.566406 0.040678 12 16 20
-0.136719 -0.566406 0.041703 11 15 19
-0.132812 -0.566406 0.043181 11 15 19
-0.128906 -0.566406 0.045158 12 16 20
-0.125000 -0.566406 0.047328 12 16 20
-0.121094 -0.566406 0.048888 11 16 20
-0.117188 -0.566406 0.049368 11 15 19
-0.113281 -0.566406 0.049337 11 15 18
-0.109375 -0.566406 0.049149 10 14 17
-0.105469 -0.566406 0.049144 9 13 17
-0.101562 -0.566406 0.049673 9 13 16
-0.097656 -0.566406 0.050740 10 13 16
-0.093750 -0.566406 0.051934 10 14 17
-0.089844 -0.566406 0.052207 10 14 17
-0.085938 -0.566406 0.050538 10 13 17
-0.082031 -0.566406 0.047383 9 13 17
-0.078125 -0.566406 0.042854 8 11 15
-0.074219 -0.566406 0.036521 11 14 18
-0.070312 -0.566406 0.027553 10 13 17
-0.066406 -0.566406 0.017642 11 13 16
-0.062500 -0.566406 0.008731 20 20 23
-0.058594 -0.566406 0.000260 9 9 11
0.078125 -0.566406 0.018066 14 15 19
0.082031 -0.566406 0.026177 12 14 18
0.085938 -0.566406 0.031077 15 18 21
0.089844 -0.566406 0.035045 14 17 21
0.093750 -0.566406 0.038131 12 14 18
0.097656 -0.566406 0.040321 12 14 19
0.101562 -0.566406 0.042499 11 14 18
0.105469 -0.566406 0.043974 11 14 18
0.109375 -0.566406 0.045132 12 14 18
0.113281 -0.566406 0.045745 12 14 18
0.117188 -0.566406 0.045774 12 15 18
0.121094 -0.566406 0.045828 11 15 18
0.125000 -0.566406 0.046193 11 14 17
0.128906 -0.566406 0.046949 11 15 17
0.132812 -0.566406 0.048254 11 15 17
0.136719 -0.566406 0.049778 11 15 18
0.140625 -0.566406 0.051484 11 15 18
0.144531 -0.566406 0.053412 11 15 18
0.148438 -0.566406 0.055803 12 16 19
0.152344 -0.566406 0.058553 12 16 19
0.156250 -0.566406 0.061233 12 16 20
0.160156 -0.566406 0.063451 13 16 20
0.164062 -0.566406 0.065177 13 16 20
0.167969 -0.566406 0.066914 13 16 20
0.171875 -0.566406 0.068676 13 16 20
0.175781 -0.566406 0.070450 13 17 20
0.179688 -0.566406 0.072171 13 17 20
0.183594 -0.566406 0.073814 13 16 19
0.187500 -0.566406 0.075293 13 15 18
0.191406 -0.566406 0.076679 14 16 18
0.195312 -0.566406 0.078380 14 16 18
0.199219 -0.566406 0.080119 14 16 18
0.203125 -0.566406 0.081072 15 16 18
0.207031 -0.566406 0.076983 16 16 18
0.210938 -0.566406 0.052746 15 16 18
0.214844 -0.566406 0.019454 15 15 17
0.218750 -0.566406 0.010334 17 16 19
0.222656 -0.566406 0.002255 14 12 15
0.226562 -0.566406 -0.001412 16 13 18
-0.214844 -0.570312 -0.009891 14 16 17
-0.210938 -0.570312 0.000783 13 17 17
-0.207031 -0.570312 0.008234 11 15 15
-0.203125 -0.570312 0.010658 12 15 16
-0.199219 -0.570312 0.012553 13 17 19
-0.195312 -0.570312 0.014290 14 19 21
-0.191406 -0.570312 0.016027 15 21 24
-0.187500 -0.570312 0.017975 14 19 23
-0.183594 -0.570312 0.019705 13 18 22
-0.179688 -0.570312 0.021315 13 17 22
-0.175781 -0.570312 0.023112 12 17 21
-0.171875 -0.570312 0.025231 12 16 20
-0.167969 -0.570312 0.027444 11 15 19
-0.164062 -0.570312 0.029733 12 16 20
-0.160156 -0.570312 0.032099 14 18 22
-0.156250 -0.570312 0.034321 15 19 23
-0.152344 -0.570312 0.036176 15 19 23
-0.148438 -0.570312 0.037599 14 19 22
-0.144531 -0.570312 0.038868 13 17 21
-0.140625 -0.570312 0.040009 11 15 19
-0.136719 -0.570312 0.041050 10 14 18
-0.132812 -0.570312 0.042517 10 14 18
-0.128906 -0.570312 0.044474 11 15 19
-0.125000 -0.570312 0.046770 11 15 20
-0.121094 -0.570312 0.048392 11 15 19
-0.117188 -0.570312 0.048819 11 15 19
-0.113281 -0.570312 0.048691 10 14 18
-0.109375 -0.570312 0.048399 9 13 17
-0.105469 -0.570312 0.048265 9 12 16
-0.101562 -0.570312 0.048499 8 12 15
-0.097656 -0.570312 0.049071 8 11 15
-0.093750 -0.570312 0.049741 8 11 14
-0.089844 -0.570312 0.049492 8 11 14
-0.085938 -0.570312 0.047210 8 12 15
-0.082031 -0.570312 0.043419 8 11 15
-0.078125 -0.570312 0.038428 8 11 15
-0.074219 -0.570312 0.032215 10 13 18
-0.070312 -0.570312 0.024658 9 11 15
-0.066406 -0.570312 0.016432 11 13 16
-0.062500 -0.570312 0.008701 20 19 22
-0.058594 -0.570312 0.000973 10 10 13
0.078125 -0.570312 0.014956 13 14 18
0.082031 -0.570312 0.024321 10 12 16
0.085938 -0.570312 0.029919 12 15 18
0.089844 -0.570312 0.034280 12 15 18
0.093750 -0.570312 0.037521 10 13 16
0.097656 -0.570312 0.039873 10 13 17
0.101562 -0.570312 0.042216 10 12 16
0.105469 -0.570312 0.043843 10 12 16
0.109375 -0.570312 0.045116 10 13 17
0.113281 -0.570312 0.045774 10 13 17
0.117188 -0.570312 0.045780 10 14 17
0.121094 -0.570312 0.045811 10 14 17
0.125000 -0.570312 0.046161 10 14 17
0.128906 -0.570312 0.046841 10 14 17
0.132812 -0.570312 0.047961 10 14 17
0.136719 -0.570312 0.049284 10 14 17
0.140625 -0.570312 0.050843 10 14 17
0.144531 -0.570312 0.052782 10 14 17
0.148438 -0.570312 0.055468 10 14 17
0.152344 -0.570312 0.058643 11 15 18
0.156250 -0.570312 0.061705 12 16 19
0.160156 -0.570312 0.064134 12 16 20
0.164062 -0.570312 0.065858 13 16 20
0.167969 -0.570312 0.067545 13 16 20
0.171875 -0.570312 0.069254 13 16 20
0.175781 -0.570312 0.071052 13 17 20
0.179688 -0.570312 0.072973 13 17 20
0.183594 -0.570312 0.074938 13 17 19
0.187500 -0.570312 0.076760 13 16 18
0.191406 -0.570312 0.078185 13 17 18
0.195312 -0.570312 0.079402 14 16 17
0.199219 -0.570312 0.080032 14 16 17
0.203125 -0.570312 0.079289 14 15 16
0.207031 -0.570312 0.073809 14 15 16
0.210938 -0.570312 0.047690 14 14 16
0.214844 -0.570312 0.018845 15 14 17
0.218750 -0.570312 0.010013 20 18 21
0.222656 -0.570312 0.002302 14 13 15
0.226562 -0.570312 -0.001464 15 13 16
-0.214844 -0.574219 -0.008546 14 16 18
-0.210938 -0.574219 0.001686 12 16 17
-0.207031 -0.574219 0.007939 11 15 15
-0.203125 -0.574219 0.009832 11 15 16
-0.199219 -0.574219 0.011629 13 17 18
-0.195312 -0.574219 0.013457 14 19 21
-0.191406 -0.574219 0.015304 15 20 23
-0.187500 -0.574219 0.017395 14 19 23
-0.183594 -0.574219 0.019239 13 18 23
-0.179688 -0.574219 0.020782 13 18 22
-0.175781 -0.574219 0.022405 13 17 22
-0.171875 -0.574219 0.024347 12 17 21
-0.167969 -0.574219 0.026478 12 16 20
-0.164062 -0.574219 0.028826 12 16 20
-0.160156 -0.574219 0.031343 13 18 22
-0.156250 -0.574219 0.033757 14 19 23
-0.152344 -0.574219 0.035742 15 20 24
-0.148438 -0.574219 0.037230 15 20 24
-0.144531 -0.574219 0.038530 14 19 23
-0.140625 -0.574219 0.039718 12 17 21
-0.136719 -0.574219 0.040807 11 16 20
-0.132812 -0.574219 0.042226 11 15 19
-0.128906 -0.574219 0.044010 12 16 20
-0.125000 -0.574219 0.046178 12 16 20
-0.121094 -0.574219 0.047814 11 16 20
-0.117188 -0.574219 0.048294 11 15 19
-0.113281 -0.574219 0.048097 11 15 19
-0.109375 -0.574219 0.047611 10 14 18
-0.105469 -0.574219 0.047268 10 14 17
-0.101562 -0.574219 0.047123 9 13 16
-0.097656 -0.574219 0.047144 9 13 16
-0.093750 -0.574219 0.047234 9 13 16
-0.089844 -0.574219 0.046427 9 13 16
-0.085938 -0.574219 0.043587 9 13 16
-0.082031 -0.574219 0.039423 9 12 16
-0.078125 -0.574219 0.034262 8 11 15
-0.074219 -0.574219 0.028287 9 12 17
-0.070312 -0.574219 0.021848 7 10 14
-0.066406 -0.574219 0.014939 10 11 14
-0.062500 -0.574219 0.007701 17 17 21
-0.058594 -0.574219 0.000403 14 15 18
0.078125 -0.574219 0.011777 10 12 16
0.082031 -0.574219 0.022824 9 11 14
0.085938 -0.574219 0.028871 11 14 17
0.089844 -0.574219 0.033510 11 15 18
0.093750 -0.574219 0.036968 10 14 18
0.097656 -0.574219 0.039483 11 14 18
0.101562 -0.574219 0.041975 10 13 17
0.105469 -0.574219 0.043761 10 13 17
0.109375 -0.574219 0.045152 10 14 18
0.113281 -0.574219 0.045883 10 14 17
0.117188 -0.574219 0.045921 10 14 17
0.121094 -0.574219 0.045997 10 14 17
0.125000 -0.574219 0.046393 10 14 17
0.128906 -0.574219 0.047070 10 14 17
0.132812 -0.574219 0.048075 10 14 17
0.136719 -0.574219 0.049251 10 14 17
0.140625 -0.574219 0.050688 10 14 17
0.144531 -0.574219 0.052598 10 14 17
0.148438 -0.574219 0.055473 11 14 18
0.152344 -0.574219 0.058947 11 15 19
0.156250 -0.574219 0.062286 12 16 19
0.160156 -0.574219 0.064885 12 16 19
0.164062 -0.574219 0.066612 13 16 20
0.167969 -0.574219 0.068240 13 16 20
0.171875 -0.574219 0.069866 13 16 20
